ply
format ascii 1.0
comment created by gply, a Houdini tool.
comment converted from .[b]geo
comment for more information about Houdini, try:
comment www.sidefx.com
element vertex 1218
property float x
property float y
property float z
property float nx
property float ny
property float nz
element face 0
property list uchar int vertex_indices
end_header
-0.841937482 0.11549747 1.25 0 0 1 
0.714119256 1.5195055 1.25 0 0 1 
-0.280871123 0.373621106 1.25 0 0 1 
-0.762293935 1.55016696 1.25 0 0 1 
0.358002096 1.10214448 1.25 0 0 1 
-0.780630648 0.0972858295 1.25 0 0 1 
0.0240059886 1.26141882 1.25 0 0 1 
0.418884426 1.41801989 1.25 0 0 1 
-0.737625003 -1.03832006 1.25 0 0 1 
-0.896303952 -1.54775357 1.25 0 0 1 
-0.979555666 0.107199743 1.25 0 0 1 
-0.726437449 -0.0041098902 1.25 0 0 1 
-0.79733628 -0.124014258 1.25 0 0 1 
-1.1982584 0.409082949 1.25 0 0 1 
-1.25 1.86707389 0.358792394 -1 0 -0 
-1.25 0.321651042 -0.0114319809 -1 0 -0 
-1.25 1.97124457 -0.027112497 -1 0 -0 
-1.25 1.30463338 -0.896244049 -1 0 -0 
-1.25 -1.02422845 -1.1795373 -1 0 -0 
-1.25 -2.19145298 -1.20585513 -1 0 -0 
-1.25 1.5860976 -0.940867066 -1 0 -0 
-1.25 0.331814617 -1.13835955 -1 0 -0 
-1.25 0.892610908 -1.01809609 -1 0 -0 
-1.25 1.80575061 -0.762898386 -1 0 -0 
-1.25 2.12817383 0.0187171623 -1 0 -0 
-1.25 0.817146659 0.0151590174 -1 0 -0 
-1.25 1.65480149 -0.351016313 -1 0 -0 
-1.25 0.471929818 0.0916256905 -1 0 -0 
-1.25 0.975664735 0.0414482355 -1 0 -0 
-1.25 1.49825728 0.729912221 -1 0 -0 
-1.25 2.31506586 -0.546736062 -1 0 -0 
-1.25 1.87877262 0.654556394 -1 0 -0 
-1.25 0.110070959 -1.20361042 -1 0 -0 
-1.25 0.652431309 0.148197442 -1 0 -0 
-1.25 0.372519463 -0.791083455 -1 0 -0 
-1.25 1.68723536 0.0336575098 -1 0 -0 
-1.25 -1.38304198 -0.697901368 -1 0 -0 
-1.25 2.04241228 0.614186525 -1 0 -0 
-1.25 -0.501860082 -1.20428395 -1 0 -0 
-1.25 1.96452308 0.400099099 -1 0 -0 
-1.25 1.51922297 -1.10882068 -1 0 -0 
-1.25 1.65162599 0.403666705 -1 0 -0 
-1.25 1.1833365 -0.0939869136 -1 0 -0 
-1.25 1.73471546 0.699405611 -1 0 -0 
-1.25 0.307290375 -0.805100918 -1 0 -0 
-1.25 -1.29557836 -0.894779682 -1 0 -0 
-1.25 1.5662154 0.152314365 -1 0 -0 
-1.25 2.0073266 -0.285835832 -1 0 -0 
-1.25 1.62247789 0.616031468 -1 0 -0 
-1.25 2.41417313 1.07944024 -1 0 -0 
-1.25 0.716327727 -0.458082765 -1 0 -0 
-1.25 -0.545494497 -1.06970501 -1 0 -0 
-1.25 1.8779372 0.763714612 -1 0 -0 
-1.25 1.43063235 -1.08897483 -1 0 -0 
-1.25 0.743555367 0.177318886 -1 0 -0 
-1.25 -1.0689981 -0.831138968 -1 0 -0 
-1.25 2.02561975 0.928815663 -1 0 -0 
-1.25 1.1386044 0.120502047 -1 0 -0 
-1.25 1.9414463 -0.985589921 -1 0 -0 
-1.25 2.20187736 -0.601337969 -1 0 -0 
-1.25 1.48684239 0.363773972 -1 0 -0 
-1.25 0.775791049 -1.11805511 -1 0 -0 
-1.25 -0.328389406 -1.00233209 -1 0 -0 
-1.25 -0.305572867 -0.686810851 -1 0 -0 
-1.25 1.03666949 0.0377430022 -1 0 -0 
-1.25 1.54331958 0.428759634 -1 0 -0 
-1.25 -1.90834534 -1.19431281 -1 0 -0 
-1.25 -2.06520224 -1.21225309 -1 0 -0 
-1.25 -0.0953279808 -0.828032315 -1 0 -0 
-1.25 1.81742442 -1.24163496 -1 0 -0 
-1.25 1.80349994 -1.15252388 -1 0 -0 
-1.25 -1.06377816 -0.890359402 -1 0 -0 
-1.25 0.97917825 0.341620058 -1 0 -0 
-1.25 0.370922327 -0.048557803 -1 0 -0 
-1.25 -0.492918104 -0.958389997 -1 0 -0 
-1.25 1.15086472 -0.564415753 -1 0 -0 
-1.25 -1.81965601 -1.10727799 -1 0 -0 
-1.25 1.49442053 -0.874045432 -1 0 -0 
-1.25 2.4392271 -0.154735148 -1 0 -0 
-1.25 2.0791831 -1.07036066 -1 0 -0 
-1.25 2.30339289 -1.173576 -1 0 -0 
-1.25 -0.684912384 -0.366399914 -1 0 -0 
-1.25 1.35939765 -0.999337912 -1 0 -0 
-1.25 0.36559689 -1.0926584 -1 0 -0 
-1.25 0.149572834 -1.15502894 -1 0 -0 
-1.25 1.79993951 -0.951918602 -1 0 -0 
-1.25 2.37234759 0.0531368703 -1 0 -0 
-1.25 1.53189301 -1.16877043 -1 0 -0 
-1.25 1.92354143 -1.12517965 -1 0 -0 
-1.25 1.86437774 0.116760343 -1 0 -0 
-1.25 2.41974592 -0.658848166 -1 0 -0 
-1.25 -1.46722972 -0.811460078 -1 0 -0 
-1.25 1.9519943 -0.373102576 -1 0 -0 
-1.25 -2.21404958 -1.15459895 -1 0 -0 
-1.25 1.68026376 -0.275927037 -1 0 -0 
-1.25 2.03417349 0.317069888 -1 0 -0 
-1.25 -0.385608554 -0.56851846 -1 0 -0 
-1.25 -0.491263211 -0.68768847 -1 0 -0 
-1.25 -0.254844427 -0.838617206 -1 0 -0 
-1.25 2.20157027 0.917053699 -1 0 -0 
-1.25 2.41281605 0.767694831 -1 0 -0 
-1.25 2.24791312 0.385005623 -1 0 -0 
-1.25 -1.0653137 -0.563658834 -1 0 -0 
-1.25 1.19931436 -0.200309634 -1 0 -0 
-1.25 1.39351153 0.578554153 -1 0 -0 
-1.25 2.07429934 0.0109874178 -1 0 -0 
-1.25 -0.870401025 -0.67794615 -1 0 -0 
-1.25 0.46356833 -1.19794309 -1 0 -0 
-1.25 1.73831224 -0.3967866 -1 0 -0 
-1.25 -0.0822837576 -0.380312145 -1 0 -0 
-1.25 -1.87768567 -1.15011811 -1 0 -0 
-1.25 1.82335353 -0.0529601201 -1 0 -0 
-1.25 -1.36857378 -0.752765656 -1 0 -0 
-1.25 0.728896737 -1.02739084 -1 0 -0 
-1.25 -0.209065661 -0.425965607 -1 0 -0 
-1.25 -0.154715747 -0.920781434 -1 0 -0 
-1.25 0.206974268 0.012937841 -1 0 -0 
-1.25 1.19772029 0.499799281 -1 0 -0 
-1.25 1.69287896 -0.520011485 -1 0 -0 
-1.25 -0.049588412 -0.969249249 -1 0 -0 
-1.25 1.80467343 0.714263737 -1 0 -0 
-1.25 -0.505433321 -0.632818639 -1 0 -0 
-1.25 0.395033628 -1.13562441 -1 0 -0 
-1.25 2.02855682 0.124946028 -1 0 -0 
-1.25 -0.782933056 -1.08871698 -1 0 -0 
-1.25 2.37622499 -1.00465202 -1 0 -0 
-1.25 1.95532215 -0.873961329 -1 0 -0 
-1.25 1.79895437 0.479700387 -1 0 -0 
-1.25 -0.903264225 -0.564231217 -1 0 -0 
-1.25 2.3816309 0.376863778 -1 0 -0 
-1.25 1.67699063 -1.24337029 -1 0 -0 
-1.25 0.100370303 -0.0726970434 -1 0 -0 
-1.25 -0.173787653 -1.04748964 -1 0 -0 
-1.25 1.92284274 0.512960494 -1 0 -0 
-1.25 2.13289881 0.258585274 -1 0 -0 
-1.25 -0.935116887 -0.642540574 -1 0 -0 
-1.25 -0.0160781313 -0.839002728 -1 0 -0 
-1.25 1.63911581 0.350272834 -1 0 -0 
-1.25 2.49061418 0.602959692 -1 0 -0 
-1.25 0.486404836 0.218109548 -1 0 -0 
-1.25 -0.553904951 -1.19723237 -1 0 -0 
-1.25 -1.35165823 -0.870714068 -1 0 -0 
-1.25 1.23106933 -0.766683638 -1 0 -0 
-1.25 -1.63965237 -1.24587297 -1 0 -0 
-1.25 1.56043065 -0.525720477 -1 0 -0 
-1.25 2.09338498 -0.714154363 -1 0 -0 
-1.25 1.22260511 0.361208975 -1 0 -0 
-1.25 0.500263393 -0.109360911 -1 0 -0 
-1.25 1.77953756 -0.662829161 -1 0 -0 
-1.25 0.76763767 0.229304761 -1 0 -0 
-1.25 -1.52410674 -1.08924329 -1 0 -0 
-1.25 0.961618304 -0.249712661 -1 0 -0 
-1.25 2.31623745 0.306547195 -1 0 -0 
-1.25 -0.0874266326 -1.00888431 -1 0 -0 
-1.25 1.26258218 0.4082883 -1 0 -0 
-1.25 2.18716359 -0.513015985 -1 0 -0 
-1.25 1.31822503 0.398867995 -1 0 -0 
-1.25 0.706753075 -0.830340505 -1 0 -0 
-1.25 0.355498344 0.0738604218 -1 0 -0 
-1.25 -0.157843754 -0.765767217 -1 0 -0 
-1.25 0.340567708 0.143388137 -1 0 -0 
-1.25 1.75810945 0.0379146561 -1 0 -0 
-1.25 1.04232836 0.520243704 -1 0 -0 
-1.25 2.08144474 0.199227378 -1 0 -0 
-1.25 1.29697478 0.300167561 -1 0 -0 
-1.25 2.23437166 0.954555154 -1 0 -0 
-1.25 2.49785638 0.688489676 -1 0 -0 
-1.25 1.96475124 0.720648766 -1 0 -0 
-1.25 1.03791821 -0.546648085 -1 0 -0 
-1.25 -0.809998095 -1.20942128 -1 0 -0 
-1.25 -0.497229248 -0.364824444 -1 0 -0 
-1.25 -1.52089393 -1.03236115 -1 0 -0 
-1.25 0.0492626131 -0.400490701 -1 0 -0 
-1.25 1.00228202 -0.978969634 -1 0 -0 
-1.25 0.920274317 0.218139082 -1 0 -0 
-1.25 -0.394135326 -0.712792814 -1 0 -0 
-1.25 0.370603114 -0.606096208 -1 0 -0 
-1.25 -0.423212409 -0.238340169 -1 0 -0 
-1.25 -0.761946261 -1.03213322 -1 0 -0 
-1.25 1.69317651 0.443752497 -1 0 -0 
-1.25 -0.107731462 -0.584733307 -1 0 -0 
-1.25 2.05571604 -0.547624469 -1 0 -0 
-1.25 -0.33328703 -0.915745318 -1 0 -0 
-1.25 -1.04974544 -1.08737242 -1 0 -0 
-1.25 1.76426566 0.881562471 -1 0 -0 
-1.25 1.27741647 0.582486272 -1 0 -0 
-1.25 -1.41968703 -0.853934765 -1 0 -0 
-1.25 1.23293185 -0.107073747 -1 0 -0 
-1.25 1.98847139 0.765126228 -1 0 -0 
-1.25 1.67667484 0.317656308 -1 0 -0 
-1.25 -0.122787498 -0.872216046 -1 0 -0 
-1.25 0.91564405 -0.274121791 -1 0 -0 
-1.25 -1.80749667 -0.9600842 -1 0 -0 
-1.25 2.24092603 0.186679751 -1 0 -0 
-1.25 -0.0208872706 -0.105377324 -1 0 -0 
-1.25 0.949252546 -1.14019763 -1 0 -0 
-1.25 0.198060706 -0.588374197 -1 0 -0 
-1.25 -0.490645647 -1.08656645 -1 0 -0 
-1.25 -1.65575266 -1.08195961 -1 0 -0 
-1.25 0.648147523 -0.0536630787 -1 0 -0 
-1.25 2.46197867 -0.816886127 -1 0 -0 
-1.25 2.11770463 0.693526745 -1 0 -0 
-1.25 0.195348471 -0.366951764 -1 0 -0 
-1.25 0.989709079 0.452214271 -1 0 -0 
-1.25 2.27763557 0.76030308 -1 0 -0 
-1.25 0.238320693 -0.342463493 -1 0 -0 
-1.25 0.575338483 -0.156959698 -1 0 -0 
-1.25 2.1197803 0.0720395744 -1 0 -0 
-1.25 0.885579824 -0.716603577 -1 0 -0 
-1.25 -0.266106158 -0.513126731 -1 0 -0 
-1.25 2.26230383 -0.947512805 -1 0 -0 
-1.25 0.750077248 -0.704539955 -1 0 -0 
-1.25 -0.109153897 -0.948242307 -1 0 -0 
-1.25 -1.14841378 -0.579809964 -1 0 -0 
-1.25 0.316058338 -0.91490525 -1 0 -0 
-1.25 0.445612639 -0.707150698 -1 0 -0 
-1.25 1.62018502 -0.577291667 -1 0 -0 
-1.25 -1.35160339 -0.91929853 -1 0 -0 
-1.25 1.05030823 -0.347404212 -1 0 -0 
-1.25 1.17276537 -0.819230497 -1 0 -0 
-1.25 -0.748953998 -0.675498903 -1 0 -0 
-1.25 0.168529063 0.0556256473 -1 0 -0 
-1.25 -2.24649525 -1.20429075 -1 0 -0 
-1.25 -1.01375473 -1.03142607 -1 0 -0 
-1.25 -1.40482092 -1.01724088 -1 0 -0 
-1.25 1.76224446 0.425719887 -1 0 -0 
-1.25 1.39291418 0.134484008 -1 0 -0 
-1.25 2.06060219 0.363946408 -1 0 -0 
-1.25 1.86063659 0.262399882 -1 0 -0 
-1.25 2.32665563 0.372869492 -1 0 -0 
-1.25 2.28102708 -0.226368323 -1 0 -0 
-1.25 0.405412972 -0.566405535 -1 0 -0 
-1.25 1.97982633 0.22278966 -1 0 -0 
-1.25 2.24851012 -0.270331532 -1 0 -0 
-1.25 0.99733907 -0.331016153 -1 0 -0 
-1.25 1.58784139 0.0401809551 -1 0 -0 
-1.25 -0.399836093 -0.302943289 -1 0 -0 
-1.25 -1.19036615 -0.953370988 -1 0 -0 
-1.25 -0.215337858 -0.119482927 -1 0 -0 
-1.25 -1.01735973 -1.13017845 -1 0 -0 
-1.25 1.7098074 -0.328854263 -1 0 -0 
-1.25 2.43998432 0.620791256 -1 0 -0 
-1.25 1.32145143 -0.84687829 -1 0 -0 
-1.25 2.15349936 0.43544367 -1 0 -0 
-1.25 1.55614066 0.64720434 -1 0 -0 
-1.25 1.20305443 -0.661227286 -1 0 -0 
-1.25 -0.434428334 -0.751841486 -1 0 -0 
-1.25 0.104648933 -0.946059287 -1 0 -0 
-1.25 2.11682558 0.376251876 -1 0 -0 
-1.25 -0.623013914 -0.370243102 -1 0 -0 
-1.25 0.44303146 -0.21621345 -1 0 -0 
-1.25 -1.6247189 -0.853497863 -1 0 -0 
-1.25 1.94282222 -0.933076084 -1 0 -0 
-1.25 0.593283474 -0.473675042 -1 0 -0 
-1.25 2.08795166 0.955871701 -1 0 -0 
-1.25 1.9087199 -0.844131291 -1 0 -0 
-1.25 1.83686042 0.584890306 -1 0 -0 
-1.25 0.0134845506 -0.678813636 -1 0 -0 
-1.25 -0.398355782 -1.00239623 -1 0 -0 
-1.25 0.184465408 -1.22039807 -1 0 -0 
-1.25 0.706305325 -0.599215388 -1 0 -0 
-1.25 1.22605336 -0.909988225 -1 0 -0 
-1.25 -1.21717548 -0.714292526 -1 0 -0 
-1.25 1.54392219 -0.160280108 -1 0 -0 
-1.25 1.61147356 -0.506427109 -1 0 -0 
-1.25 2.24895525 -1.04821348 -1 0 -0 
-1.25 -1.90758109 -0.979569972 -1 0 -0 
-1.25 -1.42762399 -0.746906042 -1 0 -0 
-1.25 1.75858712 -0.913662434 -1 0 -0 
-1.25 1.14268351 -0.0613099858 -1 0 -0 
-1.25 -0.398711145 -0.882249653 -1 0 -0 
-1.25 0.00895732827 -0.611816823 -1 0 -0 
-1.25 -1.7383219 -1.24834025 -1 0 -0 
-1.25 1.29555821 0.168534085 -1 0 -0 
-1.25 -0.219703153 -0.882059097 -1 0 -0 
-1.25 -0.00530016422 -0.187701806 -1 0 -0 
-1.25 1.92392945 -0.307207793 -1 0 -0 
-1.25 -1.51762736 -1.14637482 -1 0 -0 
-1.25 0.588319063 -0.207853436 -1 0 -0 
-1.25 1.70261908 0.848787308 -1 0 -0 
-1.25 1.93533468 0.875480771 -1 0 -0 
-1.25 1.15235555 -1.08121991 -1 0 -0 
-1.25 2.14998603 -1.10275757 -1 0 -0 
-1.25 2.17427468 0.36890313 -1 0 -0 
-1.25 0.826992273 -0.033932846 -1 0 -0 
-1.25 -2.40165472 -1.21592593 -1 0 -0 
-1.25 1.26001263 0.208002463 -1 0 -0 
-1.25 1.01205134 0.143084928 -1 0 -0 
-1.25 0.658113182 -0.291994035 -1 0 -0 
-1.25 0.913734853 -0.80677402 -1 0 -0 
-1.25 2.08650804 -0.17221877 -1 0 -0 
-1.25 1.42514694 -0.15748623 -1 0 -0 
-1.25 2.07827473 0.897397459 -1 0 -0 
-1.25 -1.98931718 -1.02301788 -1 0 -0 
-1.25 -0.174878627 -0.15475601 -1 0 -0 
-1.25 -0.485722095 -0.57109195 -1 0 -0 
-1.25 1.34837008 0.192644969 -1 0 -0 
-1.25 -1.2416203 -0.924288273 -1 0 -0 
-1.25 1.2660532 -0.426901281 -1 0 -0 
-1.25 -0.373512089 -0.425571233 -1 0 -0 
-1.25 0.541532874 0.169186205 -1 0 -0 
-1.25 0.0850509331 -0.894687951 -1 0 -0 
-1.25 -1.03049636 -0.529294491 -1 0 -0 
-1.25 -0.995135784 -0.917795122 -1 0 -0 
-1.25 1.55826795 0.50017035 -1 0 -0 
-1.25 0.0220634826 -0.481204152 -1 0 -0 
-1.25 2.14314127 -0.355451286 -1 0 -0 
-1.25 1.45987868 -0.485802978 -1 0 -0 
-1.25 1.51486742 -0.412396222 -1 0 -0 
-1.25 0.247488946 -0.772911847 -1 0 -0 
-1.25 0.108259313 -0.634783745 -1 0 -0 
-1.25 0.481103301 -0.347163528 -1 0 -0 
-1.25 -1.55781865 -1.20651519 -1 0 -0 
-1.25 1.07491231 -0.138440311 -1 0 -0 
-1.25 2.39035034 0.666532516 -1 0 -0 
-1.25 0.783426464 -0.0700136423 -1 0 -0 
-1.25 1.94172609 0.671885312 -1 0 -0 
-1.25 2.08610725 0.434077233 -1 0 -0 
-1.25 2.25728559 -0.618482888 -1 0 -0 
-1.25 -0.153999195 -1.11843741 -1 0 -0 
-1.25 1.72740841 -0.253660709 -1 0 -0 
-1.25 -1.70853901 -1.00556564 -1 0 -0 
-1.25 0.31394434 -0.398938149 -1 0 -0 
-1.25 0.0996958539 -0.4262245 -1 0 -0 
-1.25 -0.699041367 -0.718990564 -1 0 -0 
-1.25 2.02776432 -0.229697615 -1 0 -0 
-1.25 1.52807856 -0.952526987 -1 0 -0 
-1.25 -0.808570504 -0.715426505 -1 0 -0 
-1.25 1.5512253 -0.266971946 -1 0 -0 
-1.25 0.608300507 -0.340976417 -1 0 -0 
-1.25 0.531477511 -0.520039439 -1 0 -0 
-1.25 1.76680005 -1.18880665 -1 0 -0 
-1.25 0.0601366088 -0.72457093 -1 0 -0 
-1.25 -0.73220253 -0.929218233 -1 0 -0 
-1.25 1.00896358 -0.397285104 -1 0 -0 
-1.25 -0.583969414 -1.1084491 -1 0 -0 
-1.25 2.07864976 0.568505168 -1 0 -0 
-1.25 -1.00031126 -0.861518085 -1 0 -0 
-1.25 0.907564342 0.397626698 -1 0 -0 
-1.25 0.372202903 -0.155410707 -1 0 -0 
-1.25 -0.435476065 -1.13272142 -1 0 -0 
-1.25 0.0396982804 -1.10581386 -1 0 -0 
-1.25 -0.455231011 -1.18375289 -1 0 -0 
-1.25 0.454344332 -0.928832769 -1 0 -0 
-1.25 -0.226634875 -1.06884456 -1 0 -0 
-1.25 1.06804562 -0.198688358 -1 0 -0 
-1.25 1.78941357 -1.08505285 -1 0 -0 
-1.25 -2.01256824 -1.17990565 -1 0 -0 
-1.25 -0.771337569 -0.872115016 -1 0 -0 
-1.25 0.308058441 -0.974246025 -1 0 -0 
-1.25 -2.35887694 -1.18312871 -1 0 -0 
-1.25 0.969240367 -0.81258595 -1 0 -0 
-1.25 -0.16981186 -0.608935058 -1 0 -0 
-1.25 0.566185832 -0.426406294 -1 0 -0 
-1.25 0.718507886 -1.08607996 -1 0 -0 
-1.25 2.43825722 0.132808954 -1 0 -0 
-1.25 1.3738414 -0.226366609 -1 0 -0 
-1.25 -0.990181029 -0.646235585 -1 0 -0 
-1.25 1.56922042 -0.051740326 -1 0 -0 
-1.25 -0.966281176 -0.701563716 -1 0 -0 
-1.25 2.22667027 -1.2031467 -1 0 -0 
-1.25 0.758216739 0.00438747928 -1 0 -0 
-1.25 2.37695742 -1.11778796 -1 0 -0 
-1.25 -0.858423948 -0.80856657 -1 0 -0 
-1.25 -1.50501752 -1.20085871 -1 0 -0 
-1.25 1.8261534 -0.294468611 -1 0 -0 
-1.25 2.31098366 0.0101338886 -1 0 -0 
-1.25 0.0611080863 -1.19649947 -1 0 -0 
-1.25 0.98271805 -0.657075226 -1 0 -0 
-1.25 1.6014781 -0.892973423 -1 0 -0 
-1.25 0.378043562 -0.361680716 -1 0 -0 
-1.25 1.6774354 -0.210286796 -1 0 -0 
-1.25 -1.16890597 -0.680247128 -1 0 -0 
-1.25 -0.907333493 -0.807799339 -1 0 -0 
-1.25 0.328376889 -1.19397128 -1 0 -0 
-1.25 0.910969615 -0.424084067 -1 0 -0 
-1.25 2.10379457 -0.533213198 -1 0 -0 
-1.25 2.43878293 0.191234767 -1 0 -0 
-1.25 1.75295603 -0.794416487 -1 0 -0 
-1.25 -0.441518426 -0.592665017 -1 0 -0 
-1.25 1.0869776 -1.20078456 -1 0 -0 
-1.25 -0.510908484 -0.79122144 -1 0 -0 
-1.25 1.88663292 -0.928266644 -1 0 -0 
-1.25 1.42676401 0.267184615 -1 0 -0 
-1.25 1.05832171 -1.01322269 -1 0 -0 
-1.25 2.17186904 0.680264771 -1 0 -0 
-1.25 2.32604647 0.68044579 -1 0 -0 
-1.25 0.79403609 -0.373502493 -1 0 -0 
-1.25 1.89843965 -0.35881561 -1 0 -0 
-1.25 0.0777439252 -0.795112431 -1 0 -0 
-1.25 0.321004957 -0.519602597 -1 0 -0 
-1.25 1.39026344 -1.13556933 -1 0 -0 
-1.25 0.391351372 0.00786097348 -1 0 -0 
-1.25 1.01442552 -0.138220087 -1 0 -0 
-1.25 -1.12183809 -1.01311433 -1 0 -0 
-1.25 2.29309201 -0.0932394043 -1 0 -0 
-1.25 0.103191063 0.0284463204 -1 0 -0 
-1.25 1.0633837 0.0983749777 -1 0 -0 
-1.25 2.07990861 -0.368923396 -1 0 -0 
-1.25 1.0461756 0.363583237 -1 0 -0 
-1.25 2.21060801 -0.93027395 -1 0 -0 
-1.25 0.89721334 0.314438671 -1 0 -0 
-1.25 0.170856133 -0.693972588 -1 0 -0 
-1.25 2.26056838 -0.564883173 -1 0 -0 
-1.25 1.74389172 0.314459801 -1 0 -0 
-1.25 -1.26355028 -0.700986743 -1 0 -0 
-1.25 1.79964459 -0.000593159115 -1 0 -0 
-1.25 -1.73165691 -0.945915759 -1 0 -0 
-1.25 0.730628014 -0.154821083 -1 0 -0 
-1.25 2.11028385 -0.881262422 -1 0 -0 
-1.25 2.21057081 -0.13749519 -1 0 -0 
-1.25 2.26990485 0.830957353 -1 0 -0 
-1.25 2.29604578 0.494559616 -1 0 -0 
-1.25 1.43357193 -0.38332507 -1 0 -0 
-1.25 1.22358668 -0.613306344 -1 0 -0 
-1.25 -0.360272408 -0.673054636 -1 0 -0 
-1.25 -0.281258494 -0.746242702 -1 0 -0 
-1.25 2.02522421 -0.64967519 -1 0 -0 
-1.25 1.60209477 0.52984786 -1 0 -0 
-1.25 0.51657635 -0.17153056 -1 0 -0 
-1.25 2.00758171 0.516544819 -1 0 -0 
-1.25 -0.98206526 -0.971645296 -1 0 -0 
-1.25 2.49680471 -1.20733988 -1 0 -0 
-1.25 2.12405562 0.856655598 -1 0 -0 
-1.25 1.01592815 0.28575322 -1 0 -0 
-1.25 1.41788709 -0.283035606 -1 0 -0 
-1.25 2.03867245 -0.881352603 -1 0 -0 
-1.25 0.544455349 -0.884519219 -1 0 -0 
-1.25 2.39059758 1.12603104 -1 0 -0 
-1.25 1.55192006 -0.586153328 -1 0 -0 
-1.25 -0.854643643 -0.733921766 -1 0 -0 
-1.25 0.197231561 -0.451515794 -1 0 -0 
-1.25 1.71642673 0.645527124 -1 0 -0 
-1.25 0.272673577 -0.685886204 -1 0 -0 
-1.25 2.44326735 -0.0244011711 -1 0 -0 
-1.25 1.20045972 -1.20080662 -1 0 -0 
-1.25 0.571050286 -0.986600935 -1 0 -0 
-1.25 1.4316994 -0.645935059 -1 0 -0 
-1.25 -0.287709057 -0.317001343 -1 0 -0 
-1.25 1.13069022 0.508852422 -1 0 -0 
-1.25 1.27130198 0.0247053411 -1 0 -0 
-1.25 -1.96545541 -1.08041167 -1 0 -0 
-1.25 1.8815794 0.558729827 -1 0 -0 
-1.25 -0.936707079 -1.14711046 -1 0 -0 
-1.25 -0.37181595 -0.757908762 -1 0 -0 
-1.25 1.29046202 -1.16738999 -1 0 -0 
-1.25 -0.664259851 -0.777801096 -1 0 -0 
-1.25 2.45995903 1.10531235 -1 0 -0 
-1.25 2.03085589 -0.710520208 -1 0 -0 
-1.25 2.08194017 -1.22923517 -1 0 -0 
-1.25 2.21793127 1.08245587 -1 0 -0 
-1.25 0.151935667 -0.0873656496 -1 0 -0 
-1.25 2.38377714 0.119407304 -1 0 -0 
-1.25 -2.31195927 -1.20249903 -1 0 -0 
-1.25 2.38392615 0.813878834 -1 0 -0 
-1.25 2.07111454 0.821980178 -1 0 -0 
-1.25 2.45537186 -0.319009602 -1 0 -0 
-1.25 1.30734444 0.0693709329 -1 0 -0 
-1.25 -0.546011031 -0.913238287 -1 0 -0 
-1.25 0.65366143 -0.449715644 -1 0 -0 
-1.25 1.53619337 -0.218052745 -1 0 -0 
-1.25 0.665319979 -0.900887907 -1 0 -0 
-1.25 1.32331443 -0.380078584 -1 0 -0 
-1.25 -0.718418717 -0.988707125 -1 0 -0 
-1.25 -0.964692652 -0.759010017 -1 0 -0 
-1.25 1.41565013 -0.0967154503 -1 0 -0 
-1.25 1.86272478 -0.403814554 -1 0 -0 
-1.25 2.42993641 0.846257508 -1 0 -0 
-1.25 0.954843581 0.160798475 -1 0 -0 
-1.25 1.80652022 0.176794857 -1 0 -0 
-1.25 1.27956343 -0.501325488 -1 0 -0 
-1.25 0.185942158 -1.08925784 -1 0 -0 
-1.25 1.80944955 0.767572999 -1 0 -0 
-1.25 1.25604415 -0.360462844 -1 0 -0 
-1.25 1.1165055 0.0678308383 -1 0 -0 
-1.25 -0.504972994 -0.438769728 -1 0 -0 
-1.25 -0.196286067 -0.374946058 -1 0 -0 
-1.25 1.76227379 -0.134590507 -1 0 -0 
-1.25 -0.804301739 -0.573082924 -1 0 -0 
-1.25 -1.01569581 -0.736433327 -1 0 -0 
-1.25 -1.91494846 -1.1021713 -1 0 -0 
-1.25 -1.58920789 -0.992063046 -1 0 -0 
-1.25 0.736414433 -0.0969400257 -1 0 -0 
-1.25 1.26388907 -0.810287297 -1 0 -0 
-1.25 1.74858856 0.164762795 -1 0 -0 
-1.25 -0.303206146 -0.563035607 -1 0 -0 
-1.25 0.142363399 -0.0115492363 -1 0 -0 
-1.25 2.12580109 -1.18669796 -1 0 -0 
-1.25 2.43262148 0.523660541 -1 0 -0 
-1.25 1.15594041 0.308071047 -1 0 -0 
-1.25 2.38250232 -0.20185484 -1 0 -0 
-1.25 2.37316585 -0.523717701 -1 0 -0 
-1.25 2.35630083 0.526757061 -1 0 -0 
-1.25 -1.23634326 -1.17604363 -1 0 -0 
-1.25 2.48642087 0.368999481 -1 0 -0 
-1.25 0.542873919 -0.646571219 -1 0 -0 
-1.25 2.44062829 -0.537960649 -1 0 -0 
-1.25 1.31710768 -0.33002913 -1 0 -0 
-1.25 1.49483287 -0.554208338 -1 0 -0 
-1.25 0.710558712 -0.0391917415 -1 0 -0 
-1.25 0.623866379 -1.02759111 -1 0 -0 
-1.25 0.318634897 -1.04488468 -1 0 -0 
-1.25 -0.162215367 -0.273670375 -1 0 -0 
-1.25 -0.149567112 -0.0986538529 -1 0 -0 
-1.25 1.98136961 0.568594813 -1 0 -0 
-1.25 -0.217539772 -0.53387475 -1 0 -0 
-1.25 1.33354807 0.587740898 -1 0 -0 
-1.25 1.92130113 -0.642182946 -1 0 -0 
-1.25 2.47473454 0.888207614 -1 0 -0 
-1.25 0.461887747 -0.161818221 -1 0 -0 
-1.25 0.227842927 -0.0401350185 -1 0 -0 
-1.25 1.91975582 -0.421713442 -1 0 -0 
-1.25 -0.00714967074 -0.262276113 -1 0 -0 
-1.25 0.791547477 -0.183655292 -1 0 -0 
-1.25 -1.84169328 -1.19185126 -1 0 -0 
-1.25 2.22443032 0.809982777 -1 0 -0 
-1.25 2.44874239 -1.01673448 -1 0 -0 
-1.25 0.868177176 -0.880885839 -1 0 -0 
-1.25 -0.637512028 -0.626439333 -1 0 -0 
-1.25 1.67769909 -0.404340476 -1 0 -0 
-1.25 2.3438704 -0.667248011 -1 0 -0 
-1.25 -1.45565224 -1.09059381 -1 0 -0 
-1.25 0.430875212 -0.0396988876 -1 0 -0 
-1.25 1.30251825 -0.0144038917 -1 0 -0 
-1.25 1.37182736 0.298187762 -1 0 -0 
-1.25 -0.929235697 -0.902643204 -1 0 -0 
-1.25 2.14114738 -0.407077074 -1 0 -0 
-1.25 1.79670691 0.348564535 -1 0 -0 
-1.25 1.75508463 0.373872727 -1 0 -0 
-1.25 -0.655576944 -1.16467309 -1 0 -0 
-1.25 0.926530421 0.0768304244 -1 0 -0 
-1.25 0.514621317 -0.461241633 -1 0 -0 
-1.25 0.407370955 -1.20206702 -1 0 -0 
-1.25 2.08428121 -0.426281184 -1 0 -0 
-1.25 -0.0680538863 -0.897221923 -1 0 -0 
-1.25 1.52504194 0.059281379 -1 0 -0 
-1.25 0.411103845 -0.749476075 -1 0 -0 
-1.25 -0.110361971 -0.327364862 -1 0 -0 
-1.25 1.9347949 0.93001312 -1 0 -0 
-1.25 1.24497724 -0.54025811 -1 0 -0 
-1.25 -2.07802296 -1.07396805 -1 0 -0 
-1.25 -1.11762094 -0.885052264 -1 0 -0 
-1.25 -0.910936952 -0.739328742 -1 0 -0 
-1.25 1.90946865 0.0253475513 -1 0 -0 
-1.25 1.52543688 -0.691572547 -1 0 -0 
-1.25 2.36054039 -0.334000975 -1 0 -0 
-1.25 1.85312259 0.510718286 -1 0 -0 
-1.25 2.49884653 -0.728170753 -1 0 -0 
-1.25 -0.653711915 -0.976358235 -1 0 -0 
-1.25 -0.393212765 -1.20017111 -1 0 -0 
-1.25 1.07043815 -0.600871921 -1 0 -0 
-1.25 1.39394557 -0.957140684 -1 0 -0 
-1.25 1.69486868 0.137112483 -1 0 -0 
-1.25 1.33981395 -1.15085888 -1 0 -0 
-1.25 0.145938531 -0.523876131 -1 0 -0 
-1.25 0.567249954 -1.15078855 -1 0 -0 
-1.25 1.39348853 0.0188607685 -1 0 -0 
-1.25 0.867304921 -0.94320184 -1 0 -0 
-1.25 1.70427358 -1.17136979 -1 0 -0 
-1.25 0.688279986 -0.188330725 -1 0 -0 
-1.25 1.13561273 -0.209078029 -1 0 -0 
-1.25 -0.313001633 -0.458218068 -1 0 -0 
-1.25 0.401944906 -0.448208332 -1 0 -0 
-1.25 0.666536748 -1.07401931 -1 0 -0 
-1.25 2.17938423 -1.02215731 -1 0 -0 
-1.25 -0.598436654 -0.548130155 -1 0 -0 
-1.25 -2.27766395 -1.15574157 -1 0 -0 
-1.25 0.873825669 -0.235188633 -1 0 -0 
-1.25 -1.54422176 -0.797526956 -1 0 -0 
-1.25 1.54717422 0.335278302 -1 0 -0 
-1.25 0.565537393 -0.0301987939 -1 0 -0 
-1.25 -0.793847024 -0.633076787 -1 0 -0 
-1.25 1.85260475 -0.887879968 -1 0 -0 
-1.25 1.17289293 0.0802816302 -1 0 -0 
-1.25 0.67936331 -0.239609137 -1 0 -0 
-1.25 -0.577821374 -0.85215199 -1 0 -0 
-1.25 1.35191512 0.503385127 -1 0 -0 
-1.25 1.42935228 0.394472986 -1 0 -0 
-1.25 1.35118389 -0.588595212 -1 0 -0 
-1.25 2.06422162 -1.16543639 -1 0 -0 
-1.25 2.01012707 -1.18606043 -1 0 -0 
-1.25 1.10181773 -0.547499776 -1 0 -0 
-1.25 -1.95819461 -1.19169497 -1 0 -0 
-1.25 1.72656298 0.575223029 -1 0 -0 
-1.25 -0.849119604 -0.456524074 -1 0 -0 
-1.25 0.0384191982 -0.291048318 -1 0 -0 
-1.25 1.05820656 -0.667538464 -1 0 -0 
-1.25 1.68031549 -0.759118736 -1 0 -0 
-1.25 -1.73057663 -1.15979588 -1 0 -0 
-1.25 -1.6982317 -0.891744316 -1 0 -0 
-1.25 1.79309535 -0.181680396 -1 0 -0 
-1.25 1.43602371 0.0572872348 -1 0 -0 
-1.25 2.32385755 -0.189342082 -1 0 -0 
-1.25 1.80800521 0.234071493 -1 0 -0 
-1.25 -0.161368653 -0.333118439 -1 0 -0 
-1.25 1.87975395 -0.538150132 -1 0 -0 
-1.25 -1.22094297 -0.855839193 -1 0 -0 
-1.25 0.265613824 -0.228334039 -1 0 -0 
-1.25 1.17704427 -0.760862291 -1 0 -0 
-1.25 -0.641824961 -0.844544947 -1 0 -0 
-1.25 1.60016382 0.307570219 -1 0 -0 
-1.25 -0.409612179 -0.658872485 -1 0 -0 
-1.25 2.1871438 0.984236777 -1 0 -0 
-1.25 2.15325999 -0.235415787 -1 0 -0 
-1.25 2.10846233 0.76217705 -1 0 -0 
-1.25 0.73221159 -0.890722215 -1 0 -0 
-1.25 0.934336007 -0.947586119 -1 0 -0 
-1.25 1.79759622 0.293602556 -1 0 -0 
-1.25 1.47065544 0.43257004 -1 0 -0 
-1.25 1.65875459 -0.86008662 -1 0 -0 
-1.25 -0.890345335 -1.12027729 -1 0 -0 
-1.25 1.84429407 -0.348974496 -1 0 -0 
-1.25 1.42439353 -0.846979618 -1 0 -0 
-1.25 1.17612267 -0.256415129 -1 0 -0 
-1.25 1.7839396 -1.00985289 -1 0 -0 
-1.25 -1.64490473 -1.00540137 -1 0 -0 
-1.25 2.31430769 0.933341682 -1 0 -0 
-1.25 0.546853065 -0.584604383 -1 0 -0 
-1.25 0.915396094 0.0211846475 -1 0 -0 
-1.25 1.74790883 -1.13347852 -1 0 -0 
-1.25 2.47870827 -1.14898527 -1 0 -0 
-1.25 1.98350227 0.62006855 -1 0 -0 
-1.25 1.28407419 -0.159336358 -1 0 -0 
-1.25 0.93363142 -1.08725548 -1 0 -0 
-1.25 2.24579883 -0.504796147 -1 0 -0 
-1.25 1.92570758 0.125777423 -1 0 -0 
-1.25 1.22350931 0.134235218 -1 0 -0 
-1.25 -0.251695484 -0.388118923 -1 0 -0 
-1.25 0.324148297 -0.457374752 -1 0 -0 
-1.25 1.68873155 -1.10112059 -1 0 -0 
-1.25 2.02822018 0.69917047 -1 0 -0 
-1.25 2.37481213 -0.574198663 -1 0 -0 
-1.25 2.48551536 0.499076992 -1 0 -0 
-1.25 -1.38741815 -1.15179873 -1 0 -0 
-1.25 -0.203359276 -0.739609897 -1 0 -0 
-1.25 2.3523128 -1.18422353 -1 0 -0 
-1.25 0.518700778 0.111385934 -1 0 -0 
-1.25 0.293481946 -0.730147541 -1 0 -0 
-1.25 2.00043917 -0.920054436 -1 0 -0 
-1.25 -0.0697773844 -1.17841136 -1 0 -0 
-1.25 -0.967212498 -1.08923864 -1 0 -0 
-1.25 0.861746669 0.199322492 -1 0 -0 
-1.25 2.33297229 0.109942511 -1 0 -0 
-1.25 1.2641499 -0.987798274 -1 0 -0 
-1.25 0.37097019 -0.67285037 -1 0 -0 
-1.25 -0.241300836 -1.14727712 -1 0 -0 
-1.25 1.25948632 0.470910519 -1 0 -0 
-1.25 -0.0323679037 -1.11749625 -1 0 -0 
-1.25 1.5589031 -0.459137261 -1 0 -0 
-1.25 1.6818105 -0.128407881 -1 0 -0 
-1.25 -0.697910428 -0.436404109 -1 0 -0 
-1.25 1.49868262 0.481517583 -1 0 -0 
-1.25 1.87911141 -0.788892388 -1 0 -0 
-1.25 -0.82473737 -1.05470264 -1 0 -0 
-1.25 0.951582015 -0.545117557 -1 0 -0 
-1.25 0.496558845 -0.241348386 -1 0 -0 
-1.25 1.15621567 -0.14470613 -1 0 -0 
-1.25 0.262624264 -0.121475048 -1 0 -0 
-1.25 0.123922974 -1.05919719 -1 0 -0 
-1.25 1.72032619 -0.692235947 -1 0 -0 
-1.25 2.09058833 -1.01258361 -1 0 -0 
-1.25 2.09718609 -0.662556112 -1 0 -0 
-1.25 0.0611742251 -1.04902387 -1 0 -0 
-1.25 0.745385885 -0.780617058 -1 0 -0 
-1.25 1.83355856 -0.829269469 -1 0 -0 
-1.25 0.131607875 -0.760750473 -1 0 -0 
-1.25 1.80363846 0.843172669 -1 0 -0 
-1.25 1.32974672 -0.430346519 -1 0 -0 
-1.25 1.81499112 0.108900309 -1 0 -0 
-1.25 2.39389753 0.594112098 -1 0 -0 
-1.25 -1.09244394 -1.13599992 -1 0 -0 
-1.25 1.09518433 -0.39430353 -1 0 -0 
-1.25 2.38349795 0.00234097079 -1 0 -0 
-1.25 1.59021699 0.104823202 -1 0 -0 
-1.25 2.12682652 -0.958351254 -1 0 -0 
-1.25 2.19066954 0.865782976 -1 0 -0 
-1.25 -0.2600981 -0.455577701 -1 0 -0 
-1.25 0.758989453 0.104021206 -1 0 -0 
-1.25 1.72039139 -1.01238084 -1 0 -0 
-1.25 -1.50088084 -0.761634648 -1 0 -0 
-1.25 2.41459775 0.893894136 -1 0 -0 
-1.25 -0.827766716 -0.855162442 -1 0 -0 
-1.25 2.27504849 -0.846179724 -1 0 -0 
-1.25 1.22450578 0.306950927 -1 0 -0 
-1.25 2.20764208 -0.233290419 -1 0 -0 
-1.25 2.27071381 0.342934191 -1 0 -0 
-1.25 0.658519864 -0.375842631 -1 0 -0 
-1.25 2.25194979 0.0409872383 -1 0 -0 
-1.25 1.87855732 0.172029033 -1 0 -0 
-1.25 2.24783635 -0.995512784 -1 0 -0 
-1.25 2.37677622 -0.802188754 -1 0 -0 
-1.25 -0.442618072 -0.974822342 -1 0 -0 
-1.25 0.237805456 -0.641238987 -1 0 -0 
-1.25 1.31147838 -0.204314902 -1 0 -0 
-1.25 2.39339685 -1.06063855 -1 0 -0 
-1.25 -2.45742655 -1.23543465 -1 0 -0 
-1.25 1.99925292 -0.346646279 -1 0 -0 
-1.25 1.6323334 -1.21362936 -1 0 -0 
-1.25 1.49298549 0.532443821 -1 0 -0 
-1.25 0.0056357719 -0.746801555 -1 0 -0 
-1.25 1.050753 -0.445380926 -1 0 -0 
-1.25 -1.73315001 -1.08067405 -1 0 -0 
-1.25 1.29861057 -0.666780055 -1 0 -0 
-1.25 -1.37442291 -0.970907629 -1 0 -0 
-1.25 2.37104273 0.274215966 -1 0 -0 
-1.25 2.24534345 -0.889872849 -1 0 -0 
-1.25 2.35138774 -0.4327721 -1 0 -0 
-1.25 0.572975397 0.027494017 -1 0 -0 
-1.25 -0.0645993352 -0.152579084 -1 0 -0 
-1.25 1.05261981 -1.14569736 -1 0 -0 
-1.25 2.16928577 -1.22520351 -1 0 -0 
-1.25 0.814502716 -0.860713124 -1 0 -0 
-1.25 1.05133605 0.431391001 -1 0 -0 
-1.25 1.99836171 0.817367554 -1 0 -0 
-1.25 0.812062025 -0.549702644 -1 0 -0 
-1.25 1.82999301 -0.546672702 -1 0 -0 
-1.25 0.688441873 -0.778368115 -1 0 -0 
-1.25 1.67078531 0.785831392 -1 0 -0 
-1.25 1.98476887 -1.01659238 -1 0 -0 
-1.25 2.44315767 1.19937909 -1 0 -0 
-1.25 0.063418448 -0.536415458 -1 0 -0 
-1.25 -1.19536006 -0.899361074 -1 0 -0 
-1.25 1.79340017 0.550385296 -1 0 -0 
-1.25 0.360838145 -1.24654424 -1 0 -0 
-1.25 -1.25126684 -0.988941371 -1 0 -0 
-1.25 0.644129336 -1.21416914 -1 0 -0 
-1.25 1.40630329 -0.900085747 -1 0 -0 
-1.25 2.15426683 -0.558949947 -1 0 -0 
-1.25 1.74272919 -0.569258511 -1 0 -0 
-1.25 0.717411935 0.0493741445 -1 0 -0 
-1.25 1.90629625 -0.0817964375 -1 0 -0 
-1.25 1.61349678 -1.10041332 -1 0 -0 
-1.25 2.35625219 0.999544263 -1 0 -0 
-1.25 -0.495476305 -0.742124856 -1 0 -0 
-1.25 -1.96101618 -1.13564539 -1 0 -0 
-1.25 1.52058697 0.121677987 -1 0 -0 
-1.25 0.467292339 0.0295738485 -1 0 -0 
-1.25 1.33480251 -1.20330632 -1 0 -0 
-1.25 2.02376723 0.0693933591 -1 0 -0 
-1.25 2.31529355 -0.387444198 -1 0 -0 
-1.25 1.90038121 0.456941187 -1 0 -0 
-1.25 1.00886714 -0.50416714 -1 0 -0 
-1.25 -1.40238082 -0.799117625 -1 0 -0 
-1.25 1.65366411 0.559827924 -1 0 -0 
-1.25 0.525338113 -1.1110065 -1 0 -0 
-1.25 1.92434037 -0.710622668 -1 0 -0 
-1.25 -0.717681468 -1.08045912 -1 0 -0 
-1.25 1.59884346 -0.293756485 -1 0 -0 
-1.25 0.892664969 0.123037428 -1 0 -0 
-1.25 1.3520056 -0.476207465 -1 0 -0 
-1.25 1.13597977 -0.933271825 -1 0 -0 
-1.25 0.527089775 -1.01380062 -1 0 -0 
-1.25 -0.540626347 -0.333037674 -1 0 -0 
-1.25 -0.599289358 -0.949930787 -1 0 -0 
-1.25 0.158309057 -0.413038284 -1 0 -0 
-1.25 1.11885941 -0.337425262 -1 0 -0 
-1.25 1.0681411 -0.8586694 -1 0 -0 
-1.25 0.699537992 -0.545197189 -1 0 -0 
-1.25 2.20950294 0.428276032 -1 0 -0 
-1.25 1.11123121 0.358329982 -1 0 -0 
-1.25 -1.47723615 -0.929883242 -1 0 -0 
-1.25 0.253682166 -0.285145223 -1 0 -0 
-1.25 1.82259679 -0.627877891 -1 0 -0 
-1.25 1.35600448 -0.912447512 -1 0 -0 
-1.25 1.62791049 -0.155966014 -1 0 -0 
-1.25 2.45739484 -0.491987824 -1 0 -0 
-1.25 0.5535478 0.221115366 -1 0 -0 
-1.25 -0.0332433768 -0.316384077 -1 0 -0 
-1.25 0.0360515155 -0.15565376 -1 0 -0 
-1.25 1.34177339 0.0175396875 -1 0 -0 
-1.25 -0.733383119 -0.491947621 -1 0 -0 
-1.25 -1.10330677 -1.1873579 -1 0 -0 
-1.25 0.507606924 -0.39982456 -1 0 -0 
-1.25 -1.09878349 -0.693131745 -1 0 -0 
-1.25 -0.433874816 -0.459362924 -1 0 -0 
-1.25 0.547537029 -0.706859052 -1 0 -0 
-1.25 2.20876002 -0.467230231 -1 0 -0 
-1.25 1.82569778 -0.235363498 -1 0 -0 
-1.25 -0.131038398 -0.498549163 -1 0 -0 
-1.25 2.02524829 -0.175245121 -1 0 -0 
-1.25 -0.435666442 -0.923733234 -1 0 -0 
-1.25 1.74256337 -1.07248688 -1 0 -0 
-1.25 -0.89701122 -0.857600808 -1 0 -0 
-1.25 1.59508955 0.400829136 -1 0 -0 
-1.25 -0.229144514 -0.316028804 -1 0 -0 
-1.25 0.467515856 -1.00893295 -1 0 -0 
-1.25 0.284061581 0.141357541 -1 0 -0 
-1.25 0.00490358751 -0.0627657026 -1 0 -0 
-1.25 1.39157832 0.229438871 -1 0 -0 
-1.25 0.95262289 -0.0111968257 -1 0 -0 
-1.25 1.92959285 0.777121723 -1 0 -0 
-1.25 1.68679881 -0.911963105 -1 0 -0 
-1.25 -2.01899219 -1.11240876 -1 0 -0 
-1.25 1.58686852 -0.212687016 -1 0 -0 
-1.25 0.179491371 -0.296312571 -1 0 -0 
-1.25 1.14406538 0.0275035445 -1 0 -0 
-1.25 1.15462136 -0.699518204 -1 0 -0 
-1.25 0.99901247 -0.196123272 -1 0 -0 
-1.25 1.9605186 -0.80995208 -1 0 -0 
-1.25 0.892210186 -0.571523607 -1 0 -0 
-1.25 0.807418883 -0.919010103 -1 0 -0 
-1.25 2.48870873 -0.914198458 -1 0 -0 
-1.25 1.69951916 0.269848347 -1 0 -0 
-1.25 2.29068828 0.992109895 -1 0 -0 
-1.25 2.13697147 0.135214269 -1 0 -0 
-1.25 -0.200595751 -0.482165962 -1 0 -0 
-1.25 0.173862115 -0.873341978 -1 0 -0 
-1.25 2.2381959 0.600772083 -1 0 -0 
-1.25 -1.88636041 -1.05054319 -1 0 -0 
-1.25 -0.517208636 -0.852272451 -1 0 -0 
-1.25 1.32583523 0.45582363 -1 0 -0 
-1.25 2.06031585 0.998647928 -1 0 -0 
-1.25 2.12520814 -0.290486872 -1 0 -0 
-1.25 2.32277417 -0.801449597 -1 0 -0 
-1.25 1.72549641 -0.00593401585 -1 0 -0 
-1.25 -0.722233057 -1.13212383 -1 0 -0 
-1.25 2.32249212 -0.711244404 -1 0 -0 
-1.25 -0.109844543 -0.238296703 -1 0 -0 
-1.25 2.15371323 0.940399826 -1 0 -0 
-1.25 1.00587308 -0.00386273279 -1 0 -0 
-1.25 -1.27837777 -1.21110034 -1 0 -0 
-1.25 0.93983829 -0.197227314 -1 0 -0 
-1.25 1.11412716 -0.101799875 -1 0 -0 
-1.25 0.671311975 0.0197699796 -1 0 -0 
-1.25 0.780576766 -0.48242262 -1 0 -0 
-1.25 0.119655691 -0.685985744 -1 0 -0 
-1.25 -0.216027036 -0.188175991 -1 0 -0 
-1.25 1.10417318 -0.0137030659 -1 0 -0 
-1.25 0.050307747 -0.982758641 -1 0 -0 
-1.25 -0.853942513 -0.971140563 -1 0 -0 
-1.25 1.36155248 0.367522717 -1 0 -0 
-1.25 0.992829025 0.389441371 -1 0 -0 
-1.25 2.39772463 -0.0465720408 -1 0 -0 
-1.25 2.46765399 0.0788476542 -1 0 -0 
-1.25 2.07430434 0.277874172 -1 0 -0 
-1.25 0.82583493 0.327076346 -1 0 -0 
-1.25 -1.85652947 -0.980168104 -1 0 -0 
-1.25 0.798189938 -0.299532235 -1 0 -0 
-1.25 1.72630286 -0.459519506 -1 0 -0 
-1.25 1.6038816 -0.416161746 -1 0 -0 
-1.25 1.64550674 -0.811811745 -1 0 -0 
-1.25 0.594718695 -1.09371126 -1 0 -0 
-1.25 1.23090506 -0.857920825 -1 0 -0 
-1.25 1.0240854 0.231678441 -1 0 -0 
-1.25 -0.219538361 -0.796006322 -1 0 -0 
-1.25 2.09855223 -1.11792243 -1 0 -0 
-1.25 -1.32228625 -0.963593602 -1 0 -0 
-1.25 2.30830479 -1.2392056 -1 0 -0 
-1.25 -0.0502364039 -0.220404491 -1 0 -0 
-1.25 0.142444819 -0.578467667 -1 0 -0 
-1.25 -0.772081137 -0.81346792 -1 0 -0 
-1.25 1.17895222 -0.880855501 -1 0 -0 
-1.25 0.987464905 -0.920995593 -1 0 -0 
-1.25 1.06983602 -0.49866423 -1 0 -0 
-1.25 -0.290725082 -0.261406451 -1 0 -0 
-1.25 1.98053491 0.104225725 -1 0 -0 
-1.25 2.0822196 -0.119994089 -1 0 -0 
-1.25 1.50536132 -0.308708757 -1 0 -0 
-1.25 -0.606922269 -1.18386495 -1 0 -0 
-1.25 0.87628299 -1.16657901 -1 0 -0 
-1.25 2.45933533 0.742463529 -1 0 -0 
-1.25 -0.430825293 -0.522833288 -1 0 -0 
-1.25 2.13688636 -0.467987388 -1 0 -0 
-1.25 1.93808889 -0.535475552 -1 0 -0 
-1.25 2.2178309 0.33130464 -1 0 -0 
-1.25 0.925376177 -0.881408155 -1 0 -0 
-1.25 -0.0844431147 -0.0932669789 -1 0 -0 
-1.25 1.56486213 -0.376460195 -1 0 -0 
-1.25 -1.03459287 -0.605235815 -1 0 -0 
-1.25 0.31039533 -0.0781215131 -1 0 -0 
-1.25 0.128792748 -0.331241697 -1 0 -0 
-1.25 0.372392982 -0.487413049 -1 0 -0 
-1.25 1.82350695 0.0523646064 -1 0 -0 
-1.25 1.85337985 0.0124561153 -1 0 -0 
-1.25 1.39223444 -0.687625706 -1 0 -0 
-1.25 2.49106455 0.996063173 -1 0 -0 
-1.25 0.0572457127 -0.617864132 -1 0 -0 
-1.25 2.35528946 -0.942980289 -1 0 -0 
-1.25 0.908414066 -1.20631027 -1 0 -0 
-1.25 2.20648503 -0.671787262 -1 0 -0 
-1.25 2.32609773 -0.0466305278 -1 0 -0 
-1.25 1.73391008 -0.634241581 -1 0 -0 
-1.25 -0.0582002699 -0.747796357 -1 0 -0 
-1.25 0.458729476 -0.439920187 -1 0 -0 
-1.25 -0.566490233 -0.494958848 -1 0 -0 
-1.25 -0.794080198 -0.443254471 -1 0 -0 
-1.25 1.49654424 0.586222768 -1 0 -0 
-1.25 1.26565969 -0.275692642 -1 0 -0 
-1.25 -0.120059237 -0.181997299 -1 0 -0 
-1.25 1.97971916 0.463914245 -1 0 -0 
-1.25 2.28086734 0.241153985 -1 0 -0 
-1.25 1.45549822 -0.75239408 -1 0 -0 
-1.25 2.15652347 -0.632607758 -1 0 -0 
-1.25 1.32020426 -0.759249806 -1 0 -0 
-1.25 -0.670692742 -0.479456723 -1 0 -0 
-1.25 1.58449435 0.244492099 -1 0 -0 
-1.25 0.311596066 -0.331142843 -1 0 -0 
-1.25 2.03421879 -1.11667514 -1 0 -0 
-1.25 -0.0497470349 -0.64375174 -1 0 -0 
-1.25 0.847916007 -0.351279229 -1 0 -0 
-1.25 1.60203934 -0.0068147881 -1 0 -0 
-1.25 1.16779077 -1.15122151 -1 0 -0 
-1.25 0.830772221 -1.11040485 -1 0 -0 
-1.25 2.16934347 1.03646731 -1 0 -0 
-1.25 1.59995604 -1.00327396 -1 0 -0 
-1.25 -0.970659435 -0.537808716 -1 0 -0 
-1.25 2.09786749 -0.246918961 -1 0 -0 
-1.25 2.36825228 -1.24890423 -1 0 -0 
-1.25 -0.117018789 -0.725286067 -1 0 -0 
-1.25 2.42865539 -1.18506205 -1 0 -0 
-1.25 2.35023141 0.628595054 -1 0 -0 
-1.25 -0.320619524 -1.17077065 -1 0 -0 
-1.25 2.24074101 0.654683709 -1 0 -0 
-1.25 2.00956178 -0.0660702214 -1 0 -0 
-1.25 1.00683355 -0.613234103 -1 0 -0 
-1.25 0.24539572 -1.08640349 -1 0 -0 
-1.25 -0.457288533 -0.39147225 -1 0 -0 
-1.25 -0.461458236 -1.24699032 -1 0 -0 
-1.25 1.46223104 0.10972137 -1 0 -0 
-1.25 2.25987482 0.131517708 -1 0 -0 
-1.25 -1.82801735 -1.24258173 -1 0 -0 
-1.25 1.22655606 -0.244359195 -1 0 -0 
-1.25 2.36721516 1.1723001 -1 0 -0 
-1.25 0.391435266 -0.884017408 -1 0 -0 
-1.25 0.728535473 0.274755836 -1 0 -0 
-1.25 2.0105474 -0.52434665 -1 0 -0 
-1.25 1.41338265 -1.03183794 -1 0 -0 
-1.25 -0.184145898 -0.685418785 -1 0 -0 
-1.25 2.04137397 -0.992669821 -1 0 -0 
-1.25 1.97689641 0.0388916247 -1 0 -0 
-1.25 2.02009773 -0.000879145053 -1 0 -0 
-1.25 0.932047844 -0.638388515 -1 0 -0 
-1.25 1.1818856 -0.0153784659 -1 0 -0 
-1.25 0.835080624 0.158599362 -1 0 -0 
-1.25 -0.916658282 -1.02019715 -1 0 -0 
-1.25 -0.487737328 -0.494852901 -1 0 -0 
-1.25 2.03885746 0.776870966 -1 0 -0 
-1.25 1.08667028 0.245647505 -1 0 -0 
-1.25 2.2570703 0.539759696 -1 0 -0 
-1.25 2.35114861 0.893926203 -1 0 -0 
-1.25 -1.05884886 -0.990903318 -1 0 -0 
-1.25 0.399974257 -1.04722667 -1 0 -0 
-1.25 1.34199035 -1.08362389 -1 0 -0 
-1.25 1.27374756 -0.612682641 -1 0 -0 
-1.25 -1.52539241 -0.895076215 -1 0 -0 
-1.25 0.737979054 -0.510961771 -1 0 -0 
-1.25 1.40618002 0.339452654 -1 0 -0 
-1.25 1.87743425 -0.677241147 -1 0 -0 
-1.25 1.57214224 -1.13784015 -1 0 -0 
-1.25 0.62805438 -1.14342701 -1 0 -0 
-1.25 1.87903392 -1.09267032 -1 0 -0 
-1.25 2.44604182 0.692983449 -1 0 -0 
-1.25 2.37899375 0.432254225 -1 0 -0 
-1.25 0.87373811 -1.07657909 -1 0 -0 
-1.25 1.62982118 0.204400584 -1 0 -0 
-1.25 -0.11873994 -1.06699884 -1 0 -0 
-1.25 1.67524266 0.702930093 -1 0 -0 
-1.25 0.978956401 -1.1918565 -1 0 -0 
-1.25 0.845652819 -0.194359601 -1 0 -0 
-1.25 1.19043744 -0.532546401 -1 0 -0 
-1.25 1.76368439 -0.855839431 -1 0 -0 
-1.25 1.5734905 0.739198923 -1 0 -0 
-1.25 0.194326028 -0.925449908 -1 0 -0 
-1.25 0.850649297 -0.294702142 -1 0 -0 
-1.25 1.91951227 -0.0320845395 -1 0 -0 
-1.25 2.44996476 1.04450691 -1 0 -0 
-1.25 0.521872282 -0.000329032744 -1 0 -0 
-1.25 2.44628692 0.401938736 -1 0 -0 
-1.25 0.746248603 -0.322056144 -1 0 -0 
-1.25 2.28964806 0.185997918 -1 0 -0 
-1.25 2.31690836 0.806882322 -1 0 -0 
-1.25 0.039666187 -0.843425691 -1 0 -0 
-1.25 0.78810513 -1.16930234 -1 0 -0 
-1.25 0.773809671 -0.824052215 -1 0 -0 
-1.25 1.22204268 -0.713007867 -1 0 -0 
-1.25 2.31221461 -0.612947464 -1 0 -0 
-1.25 -0.644619703 -0.571022272 -1 0 -0 
-1.25 1.75455868 0.0925103873 -1 0 -0 
-1.25 0.90193826 -0.0772221833 -1 0 -0 
-1.25 1.50453579 0.638752341 -1 0 -0 
-1.25 1.86860776 -0.601309359 -1 0 -0 
-1.25 -0.271246552 -0.638596952 -1 0 -0 
-1.25 0.698675334 0.111396596 -1 0 -0 
-1.25 2.29318976 -0.496516198 -1 0 -0 
-1.25 -0.505465448 -0.290492803 -1 0 -0 
-1.25 -0.740719616 -0.382979959 -1 0 -0 
-1.25 2.24456263 -1.15363407 -1 0 -0 
-1.25 0.222844422 -0.714830041 -1 0 -0 
-1.25 2.0602951 -0.607164085 -1 0 -0 
-1.25 0.670749485 -0.668305397 -1 0 -0 
-1.25 0.759060562 -0.25464648 -1 0 -0 
-1.25 0.087999478 -0.168172792 -1 0 -0 
-1.25 0.535751343 -0.336639822 -1 0 -0 
-1.25 1.75157022 0.815459132 -1 0 -0 
-1.25 -0.901786089 -1.24921322 -1 0 -0 
-1.25 1.62276614 -0.743617117 -1 0 -0 
-1.25 1.68522644 0.499934971 -1 0 -0 
-1.25 1.18422723 0.175397635 -1 0 -0 
-1.25 1.53192306 -1.23101091 -1 0 -0 
-1.25 -0.283965409 -0.977905631 -1 0 -0 
-1.25 -0.119530119 -0.675695479 -1 0 -0 
-1.25 -0.864690244 -1.21163547 -1 0 -0 
-1.25 -1.17023981 -0.748977542 -1 0 -0 
-1.25 1.54868162 0.000153263478 -1 0 -0 
-1.25 -0.425652921 -1.05773652 -1 0 -0 
-1.25 0.275124222 -0.443691134 -1 0 -0 
-1.25 -1.35195076 -1.09850204 -1 0 -0 
-1.25 2.3443594 -0.103507705 -1 0 -0 
-1.25 -0.823126137 -0.520718217 -1 0 -0 
-1.25 1.47963893 -1.15559793 -1 0 -0 
-1.25 -0.528146923 -1.00416613 -1 0 -0 
-1.25 1.31619227 -0.956881285 -1 0 -0 
-1.25 -1.81887221 -1.01844084 -1 0 -0 
-1.25 2.19951248 0.739538848 -1 0 -0 
-1.25 2.05694985 0.520457983 -1 0 -0 
-1.25 1.97855151 -1.10856485 -1 0 -0 
-1.25 2.13074517 -0.106690221 -1 0 -0 
-1.25 1.11135554 -1.1296103 -1 0 -0 
-1.25 0.0529458486 -0.23192513 -1 0 -0 
-1.25 1.2462858 -1.04041159 -1 0 -0 
-1.25 2.2504046 -0.179935709 -1 0 -0 
-1.25 -0.689720511 -0.530479789 -1 0 -0 
-1.25 -1.17816365 -1.23784781 -1 0 -0 
-1.25 0.230565965 -1.1812017 -1 0 -0 
-1.25 2.07685041 0.657671571 -1 0 -0 
-1.25 0.998649299 -0.860302389 -1 0 -0 
-1.25 1.16245317 0.24996084 -1 0 -0 
-1.25 0.0957231969 -1.00356197 -1 0 -0 
-1.25 1.16350973 0.384379953 -1 0 -0 
-1.25 -0.491691023 -0.902375162 -1 0 -0 
-1.25 1.84406626 -0.482335955 -1 0 -0 
-1.25 0.511573553 -0.795230448 -1 0 -0 
-1.25 -0.33268258 -1.2280283 -1 0 -0 
-1.25 2.33849764 -1.07485378 -1 0 -0 
-1.25 -0.838859558 -1.10857821 -1 0 -0 
-1.25 2.42301011 -0.951325536 -1 0 -0 
-1.25 2.18055415 -0.789270461 -1 0 -0 
-1.25 1.35374236 -0.294182301 -1 0 -0 
-1.25 0.801523924 0.0664028004 -1 0 -0 
-1.25 0.425082028 0.13310425 -1 0 -0 
-1.25 2.07864165 0.14792484 -1 0 -0 
-1.25 2.16175246 0.518284976 -1 0 -0 
-1.25 -0.633499205 -1.10770738 -1 0 -0 
-1.25 2.38105893 0.937679589 -1 0 -0 
-1.25 0.214162141 -1.04257178 -1 0 -0 
-1.25 1.66060352 -0.463664532 -1 0 -0 
-1.25 2.07450747 -0.481578946 -1 0 -0 
-1.25 1.92718625 0.286557525 -1 0 -0 
-1.25 0.551367223 -1.05847275 -1 0 -0 
-1.25 -1.30017769 -1.03513455 -1 0 -0 
-1.25 -1.26954126 -0.80561018 -1 0 -0 
-1.25 0.247267321 -0.828231812 -1 0 -0 
-1.25 1.46613503 0.163571835 -1 0 -0 
-1.25 -2.11249208 -1.23560691 -1 0 -0 
-1.25 0.343927622 -0.721915483 -1 0 -0 
-1.25 1.62244463 -0.637443364 -1 0 -0 
-1.25 -2.07273221 -1.14855552 -1 0 -0 
-1.25 2.2140882 0.105727218 -1 0 -0 
-1.25 -1.18693078 -1.18893576 -1 0 -0 
-1.25 0.263017029 -1.00343537 -1 0 -0 
-1.25 1.02139509 -0.0559956282 -1 0 -0 
-1.25 2.44641924 0.259558797 -1 0 -0 
-1.25 1.10680342 -0.640958548 -1 0 -0 
-1.25 0.192318544 -0.787823319 -1 0 -0 
-1.25 1.90107238 0.226744696 -1 0 -0 
-1.25 2.18319368 -0.313905716 -1 0 -0 
-1.25 1.95620775 -0.206372514 -1 0 -0 
-1.25 -1.12773657 -0.817195237 -1 0 -0 
-1.25 1.56092346 0.557005048 -1 0 -0 
-1.25 -1.4061774 -1.07584274 -1 0 -0 
-1.25 0.824380338 -0.244087636 -1 0 -0 
-1.25 1.321468 -0.256893426 -1 0 -0 
-1.25 -1.5914309 -1.13251495 -1 0 -0 
-1.25 0.622007012 -0.972005367 -1 0 -0 
-1.25 1.84087586 -1.00491273 -1 0 -0 
-1.25 1.65446866 -1.04381335 -1 0 -0 
-1.25 2.44433618 0.336514056 -1 0 -0 
-1.25 0.487316608 -0.549729407 -1 0 -0 
-1.25 2.35311913 0.768192887 -1 0 -0 
-1.25 1.86773908 0.712009132 -1 0 -0 
-1.25 1.95880532 -0.0864267945 -1 0 -0 
-1.25 -1.38447285 -1.20213425 -1 0 -0 
-1.25 2.20828366 -0.372051805 -1 0 -0 
-1.25 1.70723808 -0.960274339 -1 0 -0 
-1.25 0.911960065 -0.326927215 -1 0 -0 
-1.25 1.00952411 -0.277111799 -1 0 -0 
-1.25 0.67732507 -1.13164377 -1 0 -0 
-1.25 -1.10437298 -0.949312449 -1 0 -0 
-1.25 -0.344184995 -1.05960047 -1 0 -0 
-1.25 2.26024652 1.11132979 -1 0 -0 
-1.25 0.378298432 -0.301959395 -1 0 -0 
-1.25 2.42538452 0.972977102 -1 0 -0 
-1.25 1.82909107 -0.108085886 -1 0 -0 
-1.25 1.89545918 0.071254313 -1 0 -0 
-1.25 2.38618135 -0.138448387 -1 0 -0 
-1.25 2.16915035 0.78660363 -1 0 -0 
-1.25 -0.968029261 -0.812597334 -1 0 -0 
-1.25 0.940140069 -0.745546341 -1 0 -0 
-1.25 2.14659786 -0.837058187 -1 0 -0 
-1.25 1.12331676 -0.839657247 -1 0 -0 
-1.25 1.79604638 -0.453269184 -1 0 -0 
-1.25 -0.339633465 -0.328067362 -1 0 -0 
-1.25 1.49722159 -1.03462887 -1 0 -0 
-1.25 0.0904799625 -0.371378005 -1 0 -0 
-1.25 -0.0695886165 -1.2318399 -1 0 -0 
-1.25 1.50335824 0.304411799 -1 0 -0 
-1.25 -0.272475988 -1.09581947 -1 0 -0 
-1.25 -0.121490218 -1.18673384 -1 0 -0 
-1.25 -0.379945993 -1.1308732 -1 0 -0 
-1.25 1.99760759 0.994388223 -1 0 -0 
-1.25 -0.84841466 -1.16518402 -1 0 -0 
-1.25 1.29227781 -1.10611069 -1 0 -0 
-1.25 0.929014742 -0.487669498 -1 0 -0 
-1.25 2.13249707 0.993490815 -1 0 -0 
-1.25 2.44520593 -0.590511501 -1 0 -0 
-1.25 0.0935949162 -1.10367382 -1 0 -0 
-1.25 1.46491539 -0.929576635 -1 0 -0 
-1.25 1.29060638 0.526867568 -1 0 -0 
-1.25 0.322575182 -0.635184228 -1 0 -0 
-1.25 -0.323756486 -0.779536903 -1 0 -0 
-1.25 0.486250818 -0.674405158 -1 0 -0 
-1.25 2.38414955 0.714237511 -1 0 -0 
-1.25 0.223646209 -0.19437395 -1 0 -0 
-1.25 0.890558183 -0.128875226 -1 0 -0 
-1.25 -1.22182047 -0.652819872 -1 0 -0 
-1.25 1.34492743 -0.0470472798 -1 0 -0 
-1.25 -2.13344383 -1.11631536 -1 0 -0 
-1.25 -0.627213299 -0.429044366 -1 0 -0 
-1.25 -0.0565277152 -0.531534135 -1 0 -0 
-1.25 2.26577806 -1.10233462 -1 0 -0 
-1.25 1.43178785 -0.44208774 -1 0 -0 
-1.25 0.255227506 0.0963106155 -1 0 -0 
-1.25 1.24334681 0.0775327608 -1 0 -0 
-1.25 2.34353685 0.197764769 -1 0 -0 
-1.25 1.82214546 0.400137752 -1 0 -0 
-1.25 0.628637969 -0.175768241 -1 0 -0 
-1.25 0.794589877 -1.06186366 -1 0 -0 
-1.25 2.30639696 -0.982107878 -1 0 -0 
-1.25 2.19332409 0.570851147 -1 0 -0 
-1.25 1.78754842 0.602754414 -1 0 -0 
-1.25 0.677165449 -1.00511849 -1 0 -0 
-1.25 1.16213393 -0.631356716 -1 0 -0 
-1.25 0.00818943046 -0.00507288426 -1 0 -0 
-1.25 0.822570324 0.259954065 -1 0 -0 
-1.25 1.85321355 0.850855589 -1 0 -0 
-1.25 0.861502767 -0.822087169 -1 0 -0 
-1.25 -1.58090281 -0.909399211 -1 0 -0 
-1.25 0.451544166 -1.08441055 -1 0 -0 
-1.25 -0.551977694 -0.399537504 -1 0 -0 
-1.25 -2.13159585 -1.18029475 -1 0 -0 
-1.25 2.29449797 0.0710127354 -1 0 -0 
-1.25 1.0999881 0.301130801 -1 0 -0 
-1.25 0.797757864 -0.649054289 -1 0 -0 
-1.25 0.729260623 -1.14486754 -1 0 -0 
-1.25 2.44396234 -0.41645363 -1 0 -0 
-1.25 1.37107313 -0.351374209 -1 0 -0 
-1.25 -1.13972831 -1.09417558 -1 0 -0 
-1.25 -0.486841232 -1.03026164 -1 0 -0 
-1.25 2.18891716 0.153677449 -1 0 -0 
-1.25 2.20405102 -1.08015859 -1 0 -0 
-1.25 1.20939732 -0.973250747 -1 0 -0 
-1.25 -1.14139283 -1.15335333 -1 0 -0 
-1.25 1.3375963 0.255830556 -1 0 -0 
-1.25 2.20347929 -0.0449874997 -1 0 -0 
-1.25 0.319490105 -0.219445974 -1 0 -0 
-1.25 -0.602126479 -0.666971862 -1 0 -0 
-1.25 0.812976003 -0.140313849 -1 0 -0 
-1.25 1.46331084 -0.98819226 -1 0 -0 
-1.25 1.64774096 0.152468547 -1 0 -0 
-1.25 -0.376932591 -0.506522119 -1 0 -0 
-1.25 1.08999896 0.470605522 -1 0 -0 
-1.25 1.89729166 -1.24034572 -1 0 -0 
-1.25 0.741695821 -0.943681419 -1 0 -0 
-1.25 0.572681665 -0.0837398767 -1 0 -0 
-1.25 1.55220628 -1.03065729 -1 0 -0 
-1.25 -0.0772448927 -0.281221807 -1 0 -0 
-1.25 1.76603997 -0.717854202 -1 0 -0 
-1.25 0.608050346 -0.585174799 -1 0 -0 
-1.25 1.82054341 -0.697759986 -1 0 -0 
-1.25 1.23249888 -0.00961615704 -1 0 -0 
-1.25 2.22377825 -0.762697101 -1 0 -0 
-1.25 0.857644081 -0.670042813 -1 0 -0 
-1.25 2.18136787 -0.178080991 -1 0 -0 
-1.25 1.93457186 0.186127216 -1 0 -0 
-1.25 0.635266662 -0.520431519 -1 0 -0 
-1.25 -0.772934675 -1.16780496 -1 0 -0 
-1.25 -0.721272409 -1.19834065 -1 0 -0 
-1.25 1.96293867 -0.260801971 -1 0 -0 
-1.25 -0.103733152 -0.42857784 -1 0 -0 
-1.25 1.65344405 -1.1401453 -1 0 -0 
-1.25 0.466197252 0.160192057 -1 0 -0 
-1.25 -0.00120315154 -1.06269383 -1 0 -0 
-1.25 1.40574598 -0.59371531 -1 0 -0 
-1.25 -0.0512376316 -0.694746554 -1 0 -0 
-1.25 0.260943204 0.0384251624 -1 0 -0 
-1.25 1.34848809 -0.127538323 -1 0 -0 
-1.25 -0.279207587 -0.921971202 -1 0 -0 
-1.25 0.576428115 0.091204308 -1 0 -0 
-1.25 0.953221262 0.292609572 -1 0 -0 
-1.25 0.449821621 -0.27838701 -1 0 -0 
-1.25 2.16953802 0.62008965 -1 0 -0 
-1.25 0.521337509 -1.1891166 -1 0 -0 
-1.25 0.633209229 -0.124061167 -1 0 -0 
-1.25 0.625725508 -0.799469411 -1 0 -0 
-1.25 0.738116443 -1.1983726 -1 0 -0 
-1.25 1.10804677 -1.0131017 -1 0 -0 
-1.25 1.09174156 -1.08130991 -1 0 -0 
-1.25 -0.969368696 -0.602618575 -1 0 -0 
-1.25 -0.607424915 -0.725885451 -1 0 -0 
-1.25 0.239194155 -0.497373074 -1 0 -0 
-1.25 0.598595858 -0.727003515 -1 0 -0 
-1.25 -1.20765293 -0.796473086 -1 0 -0 
-1.25 0.967476547 -1.02174532 -1 0 -0 
-1.25 -1.18942845 -1.13363159 -1 0 -0 
-1.25 0.824142098 -1.01332033 -1 0 -0 
-1.25 1.73155904 0.757555366 -1 0 -0 
-1.25 2.02162194 -0.830203295 -1 0 -0 
-1.25 2.21260595 0.00593582215 -1 0 -0 
